ply
format ascii 1.0
element vertex 48
property float x
property float y
property float z
property uchar red
property uchar green
property uchar blue
end_header
4.18355e+06 -1.08846e+06 3.01403e+06 100 0 155
4.18384e+06 -1.08841e+06 3.01375e+06 100 0 155
4.18391e+06 -1.08841e+06 3.01369e+06 100 0 155
4.18397e+06 -1.0884e+06 3.01364e+06 100 0 155
4.18448e+06 -1.08839e+06 3.01325e+06 100 0 155
4.18453e+06 -1.08839e+06 3.01321e+06 100 0 155
4.18458e+06 -1.08839e+06 3.01318e+06 100 0 155
4.18458e+06 -1.08839e+06 3.01318e+06 100 0 155
4.18459e+06 -1.08839e+06 3.01317e+06 100 0 155
4.1846e+06 -1.08839e+06 3.01317e+06 100 0 155
4.18464e+06 -1.0884e+06 3.01314e+06 100 0 155
4.18463e+06 -1.0884e+06 3.01315e+06 100 0 155
4.1847e+06 -1.0884e+06 3.0131e+06 100 0 155
4.18473e+06 -1.0884e+06 3.01308e+06 100 0 155
4.18475e+06 -1.08841e+06 3.01307e+06 100 0 155
4.18479e+06 -1.08841e+06 3.01305e+06 100 0 155
4.18485e+06 -1.08841e+06 3.01301e+06 100 0 155
4.18476e+06 -1.08841e+06 3.01306e+06 100 0 155
4.18514e+06 -1.08843e+06 3.01283e+06 100 0 155
4.18523e+06 -1.08843e+06 3.01277e+06 100 0 155
4.18519e+06 -1.08843e+06 3.0128e+06 100 0 155
4.18524e+06 -1.08844e+06 3.01276e+06 100 0 155
4.18529e+06 -1.08844e+06 3.01274e+06 100 0 155
4.18527e+06 -1.08845e+06 3.01274e+06 100 0 155
4.18538e+06 -1.08846e+06 3.01268e+06 100 0 155
4.1855e+06 -1.08846e+06 3.01262e+06 100 0 155
4.18563e+06 -1.08847e+06 3.01255e+06 100 0 155
4.18551e+06 -1.08847e+06 3.01261e+06 100 0 155
4.18557e+06 -1.08847e+06 3.01257e+06 100 0 155
4.18572e+06 -1.08849e+06 3.0125e+06 100 0 155
4.18564e+06 -1.08849e+06 3.01254e+06 100 0 155
4.1857e+06 -1.08849e+06 3.01251e+06 100 0 155
4.1857e+06 -1.08849e+06 3.01251e+06 100 0 155
4.18586e+06 -1.0885e+06 3.01243e+06 100 0 155
4.18575e+06 -1.0885e+06 3.01248e+06 100 0 155
4.18579e+06 -1.08851e+06 3.01247e+06 100 0 155
4.18576e+06 -1.08851e+06 3.01248e+06 100 0 155
4.1858e+06 -1.08851e+06 3.01246e+06 100 0 155
4.18591e+06 -1.08852e+06 3.01241e+06 100 0 155
4.18593e+06 -1.08853e+06 3.0124e+06 100 0 155
4.18596e+06 -1.08854e+06 3.01238e+06 100 0 155
4.1846e+06 -1.08997e+06 3.01294e+06 100 0 155
3.89164e+06 -950540 3.28191e+06 100 0 155
4.18448e+06 -1.08733e+06 3.01339e+06 100 0 155
4.18444e+06 -1.08729e+06 3.01342e+06 100 0 155
4.18437e+06 -1.08722e+06 3.01349e+06 100 0 155
4.18437e+06 -1.08722e+06 3.01349e+06 100 0 155
4.18434e+06 -1.08718e+06 3.01352e+06 100 0 155
